# .PCD v0.7 - Point Cloud Data file format
VERSION 0.7
FIELDS x y z rgba
SIZE 4 4 4 4
TYPE F F F U
COUNT 1 1 1 1
WIDTH 1118
HEIGHT 1
VIEWPOINT 0 0 0 1 0 0 0
POINTS 1118
DATA ascii
-1.5209218 -1.0442919 3.7249999 4285822835
-1.7824427 -1.0353099 3.7255008 4290888402
-1.532936 -1.0332421 3.7284997 4285888628
-1.7690744 -1.0215824 3.7267482 4291810016
-1.5573711 -1.029866 3.7278185 4286217850
-1.5205135 -1.0296608 3.724 4285822835
-1.5569882 -1.0153176 3.7267306 4286217593
-1.5225551 -1.0166734 3.7290001 4285822836
-1.7532865 -1.0064275 3.7230492 4292138980
-1.7422256 -1.0080374 3.7293997 4291612896
-1.5313209 -1.0035355 3.7244828 4285954421
-1.5192885 -1.0001532 3.721 4285757042
-1.7274103 -0.99345046 3.727679 4291481310
-1.7134631 -0.99335694 3.7280936 4291612896
-1.5545523 -0.9851895 3.7205577 4286414972
-1.532171 -0.98977995 3.7264705 4285822835
-1.5188804 -0.98554915 3.72 4285691506
-1.713081 -0.97915524 3.7269475 4291744482
-1.5566739 -0.972238 3.7254651 4286283386
-1.5305345 -0.97442007 3.7224638 4285954678
-1.5225551 -0.97356361 3.7290001 4285888884
-1.5330424 -0.9617008 3.7284479 4285823604
-1.7002492 -0.95175493 3.7290285 4292139241
-1.5558734 -0.95745677 3.7233777 4286546558
-1.5563252 -0.94344705 3.7242882 4286546558
-1.529748 -0.94533551 3.7204449 4285955191
-1.5192885 -0.94279671 3.721 4285954678
-1.7119344 -0.93659627 3.7235103 4292205034
-1.558447 -0.93042237 3.7291949 4286480765
-1.5314273 -0.93207121 3.724431 4286020983
-1.5205135 -0.92920613 3.724 4286086008
-1.5568115 -0.91516024 3.7251098 4286612351
-1.5192885 -0.91411847 3.721 4286217851
-1.7269932 -0.90938306 3.7247622 4292008168
-1.7106991 -0.90800536 3.7202301 4292337134
-1.5576806 -0.90137172 3.7270191 4286743937
-1.5196968 -0.9000212 3.7219999 4286020471
-1.7136134 -0.89562458 3.7260094 4292468720
-1.7010713 -0.89628994 3.7293918 4292797685
-1.700693 -0.88210756 3.7282462 4292797684
-1.5572976 -0.88685799 3.7259312 4286546559
-1.5306621 -0.88870919 3.7224019 4286217593
-1.5217384 -0.886868 3.727 4286086264
-1.5556619 -0.87165368 3.7218463 4286678144
-1.5315123 -0.8748998 3.7243898 4286151801
-1.531119 -0.8603729 3.7233803 4286217593
-1.7004035 -0.85400718 3.726944 4292929270
-1.5192885 -0.85676205 3.721 4286217850
-1.5315548 -0.84631413 3.724369 4286414972
-1.7125551 -0.83922482 3.7224164 4292929524
-1.700581 -0.82615596 3.7266312 4292731891
-1.7011368 -0.81246012 3.7274637 4292732145
-1.7012256 -0.7985307 3.7273073 4292864245
-1.6877381 -0.79866314 3.7287111 4292995829
-1.7124386 -0.78336179 3.7208025 4293324280
-1.7148831 -0.77054703 3.7255909 4293520630
-1.7023379 -0.77110839 3.7289724 4293126644
-1.7163855 -0.75726479 3.7284009 4293455351
-1.701492 -0.75674224 3.7268379 4293258742
-2.0252357 -0.74602073 3.7220752 4290165193
-1.6885568 -0.74314034 3.7290742 4293325049
-1.8596264 -0.70330101 3.720382 4294835199
-1.8349739 -0.70479226 3.7284493 4294966527
-1.9834023 -0.64791435 3.7212379 4292599018
-1.9845806 -0.63433003 3.7230539 4292730606
-1.9723181 -0.62081289 3.7262716 4292796909
-1.9588692 -0.62089545 3.7276738 4294638847
-1.9016819 -0.61666846 3.7232113 4287991972
-1.9594953 -0.60709989 3.7285032 4294638847
-1.9436358 -0.56444681 3.7245028 4291481304
-1.8660955 -0.51317436 3.7249999 4287927181
-1.8885972 -0.50839138 3.7265241 4287665552
-1.9898298 -0.49593794 3.7293732 4293652474
-1.9576104 -0.48066401 3.7221608 4294311423
-1.9750097 -0.45363349 3.7273469 4293587962
-1.9469266 -0.38345632 3.726408 4291153617
-1.97392 -0.36945811 3.7234483 4293916925
-1.9599341 -0.36936432 3.7238641 4294311679
-1.94497 -0.35510007 3.7221513 4291022030
-1.8629481 -0.33162639 3.7286718 4280559909
-1.9473718 -0.31359699 3.7256234 4290824137
-1.8393041 -0.31254625 3.7290001 4283192141
-1.9458594 -0.29936203 3.7225096 4290692551
-1.6919521 -0.28329676 3.7248957 4282204734
-1.9450588 -0.25732881 3.7200685 4290100671
-1.719111 -0.25545052 3.7217779 4279704601
-1.9468384 -0.22962898 3.7227111 4290297794
-1.9350617 -0.21582928 3.7269118 4288193188
-1.8860309 -1.7960155 3.7360001 4283718494
-1.6874874 -1.7759212 3.7386782 4288455079
-1.7492483 -1.7656683 3.7334428 4286876048
-1.6128243 -1.7681676 3.7379999 4285624947
-1.5958263 -1.7653295 3.7320001 4285559410
-1.5585359 -1.7613016 3.7393525 4285099370
-1.5335282 -1.7505471 3.7330136 4284968041
-1.4813455 -1.7518862 3.734 4284638818
-1.4653572 -1.7500097 3.73 4284178266
-1.47258 -1.7467873 3.7397721 4284178011
-1.4269093 -1.7434081 3.7330217 4284244066
-1.4334778 -1.7365427 3.7342732 4283059790
-1.4244401 -1.7240309 3.7360001 4283585874
-1.4149436 -1.717579 3.7389328 4285427570
-1.6396512 -1.7035722 3.7391362 4288126114
-1.498494 -1.7007322 3.7393088 4285033833
-1.4085058 -1.7078035 3.7320001 4284835688
-1.3948436 -1.7087187 3.734 4285098859
-1.3893282 -1.7064396 3.7313704 4284835689
-1.4703075 -1.686159 3.7389872 4284770661
-1.3919998 -1.6809828 3.7383449 4284769384
-1.413155 -1.6724359 3.7336631 4285296240
-1.3977228 -1.6710556 3.7307458 4284769385
-1.3943738 -1.6519365 3.7337084 4284441188
-1.4136022 -1.6443146 3.7344859 4285165167
-1.4103929 -1.6380876 3.737 4284770155
-1.3916883 -1.637512 3.7373147 4284572776
-1.407751 -1.6206455 3.73 4284770155
-1.3898317 -1.6209821 3.7323079 4284704363
-1.3723857 -1.628951 3.7392724 4284704101
-1.4225338 -1.5491917 3.7309999 4284507236
-1.4103929 -1.5372822 3.737 4284901996
-1.4058461 -1.5224094 3.7361939 4284836201
-1.384732 -1.5152695 3.7316461 4284112478
-1.4051085 -1.5072595 3.7341847 4284836201
-1.3874882 -1.5043437 3.738447 4284046685
-1.3849089 -1.4875108 3.7313342 4284178271
-1.3866106 -1.4613935 3.7349973 4284309858
-1.4287785 -1.4447486 3.7341568 4285493364
-1.3870804 -1.4479053 3.7358348 4284375650
-1.4023331 -1.4213979 3.7380891 4284177757
-1.4248214 -1.4076754 3.737 4285362033
-1.443267 -1.3733401 3.7336276 4285297268
-1.4200389 -1.3787057 3.7350523 4285034096
-1.4595686 -1.3609051 3.7384541 4284375650
-1.403073 -1.3661405 3.7384574 4284178272
-1.4348278 -1.3504293 3.7359922 4285362547
-1.392512 -1.3367521 3.7380962 4284639849
-1.5487107 -1.191945 3.7325711 4285625970
-1.5258214 -1.1916637 3.737 4285625456
-1.5594968 -1.1888198 3.7347929 4285691762
-1.5721745 -1.1732998 3.7306213 4286020728
-1.5372813 -1.1798313 3.7395933 4285560177
-1.5250047 -1.1766329 3.7349999 4285493870
-1.5755783 -1.1614934 3.738528 4286217593
-1.551681 -1.1655021 3.7395442 4285625970
-1.5356452 -1.1642209 3.7355866 4285362798
-1.7562568 -1.1481092 3.7325294 4288915378
-1.5751916 -1.1468719 3.7374396 4286151800
-1.5381893 -1.1469249 3.7320001 4285954422
-1.5245965 -1.1475395 3.734 4285493870
-1.7742852 -1.1228387 3.739717 4289375415
-1.6326184 -1.1183885 3.736922 4286546559
-1.7878779 -1.1086498 3.7381549 4288059555
-1.573189 -1.1024644 3.7321756 4286151800
-1.7426496 -1.0922513 3.7323179 4290033608
-1.526638 -1.0914422 3.7390001 4285691249
-1.7417817 -1.0777041 3.7301822 4290296779
-1.6014692 -1.0736625 3.730829 4286217594
-1.5229633 -1.0744412 3.73 4285888628
-1.7712387 -1.0648559 3.7321641 4289770435
-1.5593895 -1.0598345 3.7329929 4286349693
-1.5349869 -1.0489708 3.7335055 4285822835
-1.5586923 -1.0021139 3.7306385 4286283386
-1.7298723 -0.98090553 3.7324696 4291547103
-1.5477535 -0.97557938 3.7385392 4286217593
-1.5227914 -0.97863591 3.738488 4285757299
-1.7150532 -0.96632248 3.7307494 4291744482
-1.7034292 -0.96758997 3.7361121 4292007655
-1.715142 -0.95238537 3.7305927 4292073448
-1.6886139 -0.95300305 3.7343912 4292205547
-1.5229633 -0.9594509 3.73 4285757554
-1.7022949 -0.92493862 3.7326734 4292468720
-1.6887916 -0.92510563 3.7340779 4292271340
-1.6743619 -0.92475128 3.7335036 4292468973
-1.7028508 -0.91125053 3.733506 4292468720
-1.6907334 -0.91218406 3.7378795 4292468719
-1.6885061 -0.89695519 3.7327752 4292600306
-1.6905371 -0.87004632 3.7364194 4292732145
-1.52378 -0.8736763 3.7320001 4286086264
-1.717559 -0.86974335 3.7336102 4292600305
-1.7031176 -0.86940432 3.733036 4292863221
-1.6896994 -0.85560334 3.7342842 4292863731
-1.6916417 -0.84260082 3.7380846 4292797938
-1.5455819 -0.84535336 3.7317433 4286612865
-1.5201089 -0.84790373 3.7314012 4286283132
-1.6884872 -0.82699716 3.7310028 4292929524
-1.692283 -0.81489462 3.73876 4292864243
-1.7031837 -0.7854898 3.731107 4292995831
-1.6887537 -0.78517401 3.7305331 4293062392
-1.6906964 -0.77210599 3.7343328 4292931063
-1.6907853 -0.75814956 3.7341759 4293325049
-1.6764365 -0.74388885 3.7334456 4293325561
-2.0168774 -0.73405129 3.7321973 4290954966
-1.9075645 -0.71889555 3.7358115 4285428865
-1.9768293 -0.67839575 3.7357774 4292072674
-1.920222 -0.67782789 3.7364576 4293125619
-1.8906356 -0.6770649 3.7343292 4292271340
-1.9775488 -0.65058219 3.7364495 4292401639
-1.9613764 -0.64975184 3.7329204 4294703871
-1.9781789 -0.6367597 3.7372785 4292599018
-1.9606587 -0.59346539 3.730319 4294638847
-1.947458 -0.55158985 3.7312503 4290823628
-1.8946404 -0.54726857 3.7368228 4287862672
-1.9626267 -0.53800684 3.7326496 4294507775
-1.9806056 -0.51113755 3.7388206 4293390585
-1.8654405 -0.51920235 3.7312341 4287796109
-1.9657592 -0.46872109 3.7367935 4294311679
-1.9384032 -0.44063836 3.7382991 4288653481
-1.9525285 -0.42671826 3.7377245 4291943133
-1.9511064 -0.39834571 3.734452 4291416789
-1.9679073 -0.38499135 3.7388065 4294311679
-1.9367306 -0.3701393 3.7335684 4288325285
-1.8658382 -0.3751272 3.7349248 4284770147
-1.9660252 -0.34252828 3.7343917 4294311679
-1.9498622 -0.34203714 3.730866 4291153872
-1.9515526 -0.32833228 3.7336657 4290956237
-1.9651284 -0.31433201 3.732106 4294311679
-1.8375322 -0.31871572 3.7321651 4282797639
-1.9524432 -0.27240151 3.7340219 4290363587
-1.9389449 -0.27238739 3.7354245 4288259234
-1.6705086 -0.27028131 3.739398 4279310099
-1.8396007 -0.26169467 3.7361186 4284967527
-1.6948271 -0.269833 3.7306645 4279704600
-1.6671226 -0.22775294 3.7310252 4284309339
-1.8700607 -1.8146837 3.7451525 4282928721
-1.7903137 -1.8013035 3.747 4286086274
-1.6405835 -1.7721726 3.7477407 4285494901
-1.6574508 -1.7695867 3.7409999 4286415497
-1.6197546 -1.7656873 3.7480168 4285757303
-1.4560126 -1.7561089 3.743 4284243804
-1.4423311 -1.7426156 3.7449999 4283783253
-1.4315302 -1.7346975 3.744941 4284573031
-1.7410376 -1.7219998 3.7443225 4286218117
-1.4085829 -1.726824 3.7443333 4285098861
-1.4311826 -1.7199142 3.7438512 4284507236
-1.7001122 -1.708711 3.7473962 4287007633
-1.6689272 -1.7051886 3.7412832 4287599517
-1.4149219 -1.7011359 3.7490001 4284967273
-1.4180394 -1.6925969 3.7467597 4285164654
-1.4086471 -1.6837258 3.744302 4285033582
-1.397832 -1.6835395 3.7420001 4285033839
-1.3950258 -1.6702378 3.7463293 4284769641
-1.4173517 -1.6630454 3.7445803 4285296240
-1.4181775 -1.6352726 3.746403 4285427826
-1.3736056 -1.6164067 3.742099 4284572515
-1.4115251 -1.5961657 3.74 4285099373
-1.4130347 -1.5834451 3.744 4285033580
-1.4087967 -1.5831634 3.7442296 4285032813
-1.408059 -1.5679518 3.7422206 4285032813
-1.3875147 -1.5604064 3.7400656 4284046171
-1.4327434 -1.5493211 3.7457831 4285296238
-1.424788 -1.541747 3.7481568 4285164654
-1.3887465 -1.5477967 3.7428911 4284112221
-1.4267279 -1.5393392 3.7420001 4284573031
-1.4335771 -1.521471 3.7476051 4285099375
-1.4290154 -1.5273641 3.7479999 4284638824
-1.4293967 -1.5133247 3.7490001 4285032813
-1.4321166 -1.4912001 3.7434258 4285361778
-1.4336807 -1.4784547 3.7473376 4285624436
-1.3899525 -1.4790164 3.7440968 4284244064
-1.4267279 -1.4528189 3.7420001 4285098861
-1.4056214 -1.4528772 3.7473433 4283849050
-1.4278716 -1.4395519 3.7449999 4285098861
-1.4037849 -1.436919 3.7422194 4283784023
-1.4242136 -1.4115528 3.7460647 4285099889
-1.4066585 -1.4118326 3.7488601 4284046685
-1.4036659 -1.3947508 3.7407565 4283849306
-1.4542756 -1.3551955 3.7489431 4284112994
-1.4058583 -1.3548834 3.7452536 4284244318
-1.3822317 -1.3407029 3.7491269 4284573029
-1.4067831 -1.3391899 3.7425885 4284573029
-1.4075772 -1.3284888 3.7489128 4284375650
-1.4364974 -1.301492 3.7497542 4284704869
-1.5927933 -1.2067254 3.7457068 4286086007
-1.5563426 -1.2073555 3.7409999 4285954422
-1.5253662 -1.1817225 3.7456269 4285362798
-1.5649563 -1.1785971 3.7476976 4285823605
-1.6051229 -1.1621834 3.7403572 4286151800
-1.5439595 -1.1656629 3.7460001 4285953908
-1.7485114 -1.1522067 3.7458119 4289375675
-1.5385673 -1.1520631 3.7425699 4285493870
-1.5150329 -1.1512274 3.7460001 4285428077
-1.5650254 -1.1498965 3.747519 4286086007
-1.5489936 -1.1486375 3.7436061 4285757298
-1.7191633 -1.1370721 3.7435179 4290099398
-1.7074955 -1.1385705 3.7488844 4290362570
-1.576911 -1.1337686 3.741348 4286151800
-1.5662142 -1.1366451 3.7449558 4286086007
-1.5546516 -1.1389513 3.7465172 4286086007
-1.7351513 -1.1244451 3.7469039 4289967812
-1.5307211 -1.1232554 3.7490001 4285493871
-1.5162462 -1.1232554 3.7490001 4285493870
-1.7483007 -1.1099225 3.7443509 4289967812
-1.5270463 -1.1061465 3.74 4285625456
-1.7353296 -1.0964551 3.7465894 4290165191
-1.5791206 -1.0922397 3.7460775 4286349179
-1.5547158 -1.0958184 3.7464859 4285954421
-1.5150329 -1.0934856 3.7460001 4285428077
-1.7339953 -1.0815508 3.7434633 4290362573
-1.5415751 -1.0822947 3.7495117 4285757298
-1.5251055 -1.0808144 3.744555 4285363053
-1.5804189 -1.0787534 3.7489862 4286020728
-1.5526458 -1.0799818 3.7414804 4286020214
-1.7915746 -1.0688412 3.7446086 4289243575
-1.7514383 -1.0697564 3.7498167 4290625744
-1.7336099 -1.0672681 3.7423165 4290559951
-1.541182 -1.0676177 3.7485023 4285691506
-1.5271108 -1.065393 3.744771 4285691506
-1.7916639 -1.0548463 3.7444515 4289572540
-1.7655596 -1.05584 3.7492423 4290757330
-1.7206392 -1.0537856 3.7445552 4290823380
-1.5251482 -1.0520744 3.7445343 4285691506
-1.5500622 -1.0488509 3.7449803 4285823349
-1.7487463 -1.0399861 3.7435653 4291283674
-1.5496832 -1.0342331 3.743892 4285823349
-1.52558 -1.0379847 3.745523 4285691249
-1.5158416 -1.0362967 3.7479999 4285559663
-1.7222296 -1.0266739 3.7472098 4291218138
-1.5243697 -1.0227818 3.7425153 4285691249
-1.7349157 -1.0119176 3.7436676 4291283931
-1.5493044 -1.019623 3.7428033 4285954678
-1.5497522 -1.0055555 3.7437134 4286151800
-1.5260334 -1.0095098 3.7465012 4285757043
-1.70652 -0.99746251 3.7433534 4291744482
-1.5493734 -0.99095321 3.742625 4286020214
-1.524823 -0.99432606 3.7434936 4285559663
-1.7056751 -0.98292696 3.7412171 4291876068
-1.6799766 -0.9841193 3.7469985 4291811043
-1.692693 -0.96940166 3.7434554 4291942118
-1.5510968 -0.96330673 3.7464433 4286349179
-1.525687 -0.96611589 3.745471 4285560176
-1.6810735 -0.95666593 3.7486637 4292008936
-1.5261189 -0.95199919 3.7464597 4285625970
-1.6956503 -0.94302183 3.7490792 4292139498
-1.6779476 -0.94081199 3.7415783 4292140522
-1.5523721 -0.9497124 3.7493515 4286480765
-1.5515795 -0.93485415 3.7472637 4286151800
-1.5265725 -0.92349339 3.7474382 4285888886
-1.6776663 -0.91260374 3.7402744 4292468973
-1.5499595 -0.91952276 3.7431781 4286349179
-1.5487531 -0.90446258 3.7400916 4286283386
-1.550856 -0.89131838 3.744998 4286217593
-1.5237408 -0.89303845 3.7404237 4286217338
-1.6946175 -0.88624847 3.7454815 4292666098
-1.5274578 -0.88082463 3.7494049 4286151545
-1.6811495 -0.87240463 3.7467303 4292732143
-1.5492359 -0.87604094 3.7409127 4286283386
-1.5500977 -0.86216754 3.7428212 4286349693
-1.6808685 -0.8441695 3.7454264 4292797936
-1.6791196 -0.82923996 3.7413118 4293126901
-1.6807656 -0.78796744 3.7438085 4293193977
-1.6836125 -0.77528578 3.7495866 4293193977
-1.6795651 -0.75934207 3.7405267 4293259770
-1.665653 -0.74526858 3.7407858 4293522681
-1.8821038 -0.70713049 3.7459211 4291284446
-1.9390019 -0.67964745 3.7449226 4289045682
-1.969521 -0.63846779 3.7475605 4294704127
-1.9559872 -0.63855362 3.748965 4293257203
-1.9557227 -0.59623826 3.7475052 4292007392
-1.9531459 -0.58136928 3.7424154 4291481305
-1.9428939 -0.56837553 3.7495809 4291744476
-1.966835 -0.55325478 3.7406964 4294507775
-1.9535928 -0.51124024 3.7416277 4292797674
-1.9537716 -0.48318863 3.7413127 4292206307
-1.8736242 -0.43515664 3.7471516 4284572768
-1.9395518 -0.42686883 3.7401137 4288587688
-1.9563527 -0.41353378 3.7444685 4291811547
-1.9001008 -0.41315651 3.7461405 4283323983
-1.9423794 -0.39939827 3.7447288 4287798941
-1.941939 -0.38524622 3.7435851 4287601818
-1.9560876 -0.37130311 3.7430093 4291153616
-1.8424047 -0.37705687 3.7421939 4279178256
-1.9426478 -0.35727462 3.7442558 4288062369
-1.8419516 -0.34822932 3.7411745 4284836710
-1.944685 -0.28732002 3.746424 4288390564
-1.8859661 -0.27565393 3.7451885 4284046939
-1.8781188 -0.2708815 3.7490001 4279507222
-1.846025 -0.27702722 3.7491124 4279770394
-1.945394 -0.25929058 3.7470939 4288127394
-2.0029778 -0.23169208 3.7470744 4294310655
-1.6717789 -0.21442956 3.7407444 4283914838
-1.7596122 -1.7905716 3.7554328 4286941841
-1.7527555 -1.7841475 3.755343 4287467931
-1.6798729 -1.7830201 3.7537682 4286678668
-1.7470663 -1.7780451 3.7594578 4287402392
-1.5605029 -1.7743169 3.7509999 4285362542
-1.6458991 -1.7634666 3.7597198 4285626487
-1.5922954 -1.767032 3.7511883 4285362545
-1.519886 -1.7631464 3.7579999 4284836198
-1.4309218 -1.7463381 3.753 4283519827
-1.4264261 -1.731032 3.7532883 4284309343
-1.7169192 -1.7116638 3.7529311 4286415497
-1.6898171 -1.7124286 3.755748 4287402138
-1.6319494 -1.7101471 3.7534451 4288389286
-1.4272141 -1.7175539 3.7552767 4284309343
-1.4123985 -1.7170711 3.7543161 4285033068
-1.401194 -1.7020433 3.7509999 4285164652
-1.5352612 -1.6969231 3.7591817 4285494384
-1.4186959 -1.6911879 3.7590001 4284967273
-1.4186959 -1.6767024 3.7590001 4284704617
-1.4124843 -1.6594527 3.7542744 4284901741
-1.3942195 -1.6526166 3.7598937 4283585620
-1.4352121 -1.6383659 3.7533214 4284770408
-1.4340999 -1.6227087 3.7502308 4284967530
-1.4152501 -1.6170781 3.75562 4285033325
-1.4316844 -1.5736272 3.7550001 4284375650
-1.4346204 -1.5657403 3.750874 4285164652
-1.4122548 -1.5582014 3.7532022 4285164399
-1.4358366 -1.5382694 3.7536964 4285296752
-1.4290262 -1.5318887 3.7591383 4285033582
-1.4095008 -1.5132984 3.7589006 4283849306
-1.435141 -1.5087411 3.7515171 4285296240
-1.4065988 -1.4820099 3.7506373 4283915353
-1.429778 -1.4703758 3.75 4285033068
-1.4074579 -1.4688742 3.7524679 4283849050
-1.4276 -1.4582016 3.7550893 4285362545
-1.429155 -1.4453455 3.7590756 4285230961
-1.4512756 -1.4241676 3.7548966 4285296499
-1.432447 -1.4296869 3.757 4285362033
-1.4257686 -1.3986851 3.7500513 4285363061
-1.4076066 -1.3847018 3.7505331 4283980892
-1.4591244 -1.3695848 3.7509999 4284375138
-1.4602915 -1.3562138 3.7539999 4284440931
-1.4454122 -1.3558526 3.753 4284901482
-1.4301592 -1.3551301 3.7509999 4285625205
-1.421518 -1.3511696 3.7516198 4284703848
-1.3957133 -1.3539777 3.7597904 4284967531
-1.3404336 -1.3420827 3.7532406 4283586134
-1.4243685 -1.3172024 3.7552915 4284441697
-1.3950105 -1.2876066 3.7518375 4285690998
-1.5455476 -1.2006346 3.7595861 4285297005
-1.5542648 -1.1957701 3.7568679 4285494638
-1.530314 -1.1711278 3.757606 4285297262
-1.5695815 -1.1676549 3.7586026 4286217593
-1.5327625 -1.1681522 3.7539999 4285428077
-1.7251909 -1.1552422 3.7565453 4289967812
-1.5571396 -1.1551954 3.7525222 4285888628
-1.5299248 -1.1563967 3.7565963 4285625456
-1.5423182 -1.140466 3.7515516 4285822835
-1.5404001 -1.1384968 3.7575946 4285625711
-1.5315377 -1.1383092 3.7509999 4285362285
-1.5536109 -1.1232483 3.7544215 4285822835
-1.5452404 -1.1281927 3.7585349 4285691249
-1.5283256 -1.126351 3.752579 4285493870
-1.7240474 -1.1122208 3.7531028 4290362570
-1.5552995 -1.1100487 3.7583296 4285954421
-1.5287576 -1.1122496 3.7535677 4285691249
-1.5166506 -1.109104 3.75 4285691249
-1.7124307 -1.0996431 3.7583125 4290691535
-1.5689201 -1.0951101 3.7561562 4285822835
-1.5536802 -1.0944936 3.7542427 4285954421
-1.541968 -1.0969795 3.7505212 4285888628
-1.7265792 -1.0857 3.7577369 4290559951
-1.5489054 -1.0825067 3.7579999 4285954421
-1.5186728 -1.0816426 3.7550001 4285428077
-1.5529226 -1.0651734 3.7520652 4285954935
-1.5401639 -1.0662696 3.7561476 4285757299
-1.7529627 -1.0566322 3.7526278 4290888916
-1.5410177 -1.0524424 3.7580566 4285559920
-1.5194817 -1.0532629 3.757 4285493870
-1.7246728 -1.0140941 3.7520006 4291481310
-1.7110997 -1.0142838 3.7534077 4291744482
-1.699924 -1.0018471 3.7596064 4291744482
-1.6967717 -0.98586965 3.7525203 4291744482
-1.6705136 -0.98678529 3.7573149 4292074468
-1.6828213 -0.97175741 3.7527802 4292074215
-1.6715139 -0.97329611 3.7591372 4292074213
-1.670782 -0.94468474 3.7568419 4292468971
-1.6571784 -0.94485492 3.7582498 4290561228
-1.5310677 -0.94066077 3.7584383 4285954935
-1.6572678 -0.93081754 3.7580919 4290758095
-1.668594 -0.92934835 3.7517354 4292534764
-1.6682279 -0.91507733 3.7505882 4292600557
-1.6851056 -0.90267855 3.7559514 4292468973
-1.6724169 -0.9033429 3.7593384 4292468971
-1.5278256 -0.90984851 3.7504249 4285888885
-1.6828979 -0.88739973 3.7508459 4292534766
-1.6715953 -0.88879973 3.757201 4292600557
-1.6725959 -0.87525278 3.7590227 4292863728
-1.6849144 -0.86033666 3.7544889 4292600557
-1.5283005 -0.86690342 3.7513928 4286151289
-1.6694962 -0.85951841 3.7519379 4292731628
-1.6700412 -0.84573776 3.7527699 4292665835
-1.6724088 -0.83288395 3.75756 4292929775
-1.683804 -0.81755829 3.7510481 4293061877
-1.6838933 -0.80354017 3.7508907 4292865012
-1.6699429 -0.78942794 3.7511506 4293588219
-1.6713995 -0.77606446 3.7539611 4293522426
-1.6710331 -0.76182044 3.7528143 4293456633
-1.6583413 -0.76236916 3.7561998 4288521899
-1.758729 -0.67937922 3.7552936 4294770430
-1.9580305 -0.65333879 3.7530696 4293125104
-1.945272 -0.61139619 3.7549875 4290494410
-1.9587475 -0.54082412 3.7518058 4292533990
-1.961504 -0.52750653 3.7565792 4293455604
-1.9468691 -0.52726263 3.756012 4289179059
-1.9600832 -0.49891439 3.7533042 4292272100
-1.9602625 -0.4707703 3.7529881 4292272100
-1.9483769 -0.45712402 3.7571936 4288719274
-1.9609755 -0.44275245 3.7536581 4292008925
-1.9503345 -0.31643251 3.7575827 4288127905
-1.947245 -0.30181122 3.7515101 4288193184
-1.962496 -0.28800142 3.7529044 4290627014
-1.9354348 -0.27389243 3.7555556 4287207058
-1.9344723 -0.25965276 3.7534263 4287338644
-1.9219377 -0.25978646 3.7568028 4286812043
-1.9649007 -0.24605139 3.7563715 4290232001
-1.9347415 -0.21741353 3.7529519 4287272853
-1.899729 -1.8017466 3.7605805 4283060307
-1.7942498 -1.7963833 3.7673438 4286349446
-1.7965251 -1.7785742 3.76 4286218117
-1.729508 -1.7753687 3.7674267 4288257957
-1.5846891 -1.7651458 3.7629366 4285428078
-1.5659112 -1.7659614 3.7639999 4285296492
-1.5544161 -1.7639496 3.7676811 4285099626
-1.5352124 -1.7640848 3.76 4284902247
-1.5339689 -1.7530882 3.7690144 4284836711
-1.510478 -1.7576163 3.7626154 4284573282
-1.5033782 -1.7511688 3.7650955 4284244831
-1.4980457 -1.7599199 3.7677038 4284375903
-1.4806786 -1.7537832 3.7690001 4284375902
-1.4744285 -1.7511257 3.7651734 4284047195
-1.4615176 -1.7529802 3.7692096 4283849560
-1.4672509 -1.7431178 3.7627819 4283586388
-1.791782 -1.7309295 3.7609181 4284375399
-1.4255723 -1.7160512 3.7668614 4285230447
-1.5518174 -1.699851 3.7647238 4285625970
-1.5216601 -1.6973013 3.7605917 4285428591
-1.4251599 -1.6845173 3.7673283 4284178524
-1.4166367 -1.6788045 3.7652774 4285099120
-1.4174384 -1.6507945 3.7672548 4285099120
-1.41746 -1.6363398 3.7672443 4284967277
-1.3951596 -1.6255554 3.7615678 4283454034
-1.4387219 -1.6135125 3.7621465 4285098859
-1.3963916 -1.6129111 3.7643931 4283848792
-1.4335908 -1.6047014 3.76 4284046684
-1.4148467 -1.6044171 3.7602284 4285295984
-1.4358784 -1.5927495 3.766 4284244318
-1.438409 -1.5843056 3.760967 4285164652
-1.3977132 -1.5862292 3.7670608 4283914585
-1.4312835 -1.5632501 3.7651548 4285033068
-1.4132612 -1.5315439 3.768995 4283783513
-1.4548953 -1.5288157 3.7655251 4284309857
-1.4321145 -1.5207237 3.7671218 4285099373
-1.455351 -1.5003978 3.766346 4284901482
-1.4335908 -1.5032755 3.76 4284901227
-1.41113 -1.5009836 3.762718 4283981147
-1.4306241 -1.4902158 3.763104 4284836201
-1.4347346 -1.489974 3.763 4284835434
-1.4546479 -1.4707924 3.7641661 4285098606
-1.4542962 -1.4560013 3.7630765 4284835434
-1.4562624 -1.4435157 3.7679877 4285099120
-1.4511892 -1.4338728 3.7679999 4284375650
-1.4318602 -1.4336114 3.7660599 4285362547
-1.4496486 -1.4178458 3.7639999 4284440928
-1.4536624 -1.3976567 3.7607179 4285362547
-1.4285916 -1.3917674 3.7679951 4284441697
-1.484149 -1.3703966 3.7643681 4284179041
-1.446425 -1.3758296 3.7659793 4285231475
-1.4127532 -1.3565316 3.7667055 4284901227
-1.4273927 -1.3341612 3.7633927 4284507490
-1.412854 -1.2913035 3.7613516 4284441443
-1.5868464 -1.2131182 3.7657828 4286020214
-1.5584339 -1.1845217 3.7667737 4285363052
-1.5223128 -1.1857687 3.7639999 4285559663
-1.5592955 -1.1707177 3.768683 4285757041
-1.5243349 -1.1728199 3.7690001 4285362284
-1.7411398 -1.1566259 3.7600875 4289573054
-1.5428232 -1.1547214 3.7636812 4285691503
-1.7027316 -1.1448454 3.7691059 4290494157
-1.6886339 -1.1447508 3.7695251 4290626253
-1.5589516 -1.141553 3.767504 4285888627
-1.531999 -1.1435165 3.7615817 4285559663
-1.5191624 -1.1447239 3.7656171 4285428078
-1.614234 -1.1254773 3.761076 4286217594
-1.6019273 -1.1269335 3.7661583 4286151800
-1.5862122 -1.1260034 3.7632456 4286217593
-1.5734417 -1.127161 3.7673287 4286151800
-1.5675752 -1.128948 3.7679999 4286086008
-1.5513784 -1.1277494 3.7639999 4285822836
-1.5433022 -1.1261955 3.7645013 4285822835
-1.7428317 -1.1154232 3.7625835 4290099398
-1.6159846 -1.1122508 3.7649839 4286217594
-1.5730591 -1.1124392 3.7662396 4285888628
-1.5453852 -1.1132517 3.7694089 4285757042
-1.7297843 -1.101886 3.7648239 4290428363
-1.5446006 -1.0982355 3.7673202 4285625456
-1.5316528 -1.0999147 3.760551 4285428334
-1.5743808 -1.0844522 3.7690582 4286283900
-1.5434064 -1.082948 3.7642322 4285559920
-1.5204685 -1.0877959 3.7685726 4285362799
-1.7712574 -1.0734421 3.7612729 4290296779
-1.7313756 -1.0746551 3.7674773 4290626515
-1.7168109 -1.0742613 3.7669063 4291086552
-1.5219083 -1.0694461 3.763 4285362541
-1.7287306 -1.0447541 3.7612228 4291218138
-1.6878843 -1.0453452 3.7654481 4291284697
-1.7574477 -1.0311779 3.7612178 4291415518
-1.7462169 -1.0328096 3.7675736 4291086552
-1.6870556 -1.0307057 3.76331 4291547869
-1.5439203 -1.0399755 3.7649627 4285560177
-1.545184 -1.0263697 3.7678704 4285757299
-1.5219083 -1.0259432 3.763 4285757043
-1.5460383 -1.0124732 3.7697794 4285757042
-1.5215039 -1.0111735 3.7620001 4285493616
-1.6886125 -1.003432 3.765964 4291613664
-1.6618767 -0.99000287 3.769614 4291021778
-1.520695 -0.99614644 3.76 4285559664
-1.6597981 -0.96050197 3.7643476 4290824399
-1.6725142 -0.95979154 3.7609591 4292403178
-1.6475967 -0.94740468 3.7685685 4286350473
-1.5235261 -0.92541909 3.767 4286019959
-1.6618738 -0.91934741 3.7678335 4290757838
-1.662415 -0.90552431 3.7686651 4290494921
-1.6608773 -0.86231989 3.7642317 4290034368
-1.660967 -0.84825552 3.7640738 4289507767
-1.6601529 -0.83372402 3.7619364 4289244852
-1.6775106 -0.82137018 3.7682865 4292732396
-1.6634052 -0.82127553 3.7687056 4289047217
-1.6640366 -0.79333037 3.7693787 4288785071
-2.0495257 -0.78354901 3.7657883 4289704640
-2.0512841 -0.7700758 3.7685885 4289704640
-1.6641264 -0.77924293 3.7692204 4288259240
-1.3631756 -0.76553565 3.766 4284572515
-1.3624517 -0.75062424 3.7639999 4284506722
-1.9643383 -0.66965789 3.7650678 4293848569
-1.9635417 -0.62697351 3.7626193 4293257459
-1.9652314 -0.61338812 3.7654204 4293059823
-1.9392409 -0.58562851 3.7698903 4293850109
-1.9519843 -0.55699259 3.7661929 4292139487
-1.9396011 -0.52910912 3.7692556 4288192417
-1.9501361 -0.51405585 3.7617719 4288455590
-1.9529637 -0.48653895 3.7663863 4288981932
-1.9512949 -0.41545421 3.7616489 4288062114
-1.9409373 -0.40205517 3.7688131 4287141264
-1.9417335 -0.35975716 3.7693229 4287272850
-1.9233973 -0.35883781 3.7618551 4286746248
-1.9517444 -0.34492061 3.7608566 4288259492
-1.9550135 -0.33138624 3.766613 4287864734
-1.9383216 -0.31670389 3.7619455 4287075471
-1.9411319 -0.28890181 3.7665575 4287075472
-1.8816409 -0.25980648 3.7620058 4284573538
-1.9125801 -0.24625024 3.7659366 4281942588
-1.9722741 -1.8149779 3.7748773 4283454812
-1.8046477 -1.8011705 3.777 4286086531
-1.8847103 -1.7853925 3.7740922 4282994260
-1.7435415 -1.7837774 3.7709999 4287468189
-1.6743971 -1.7780578 3.7737706 4285626235
-1.6085469 -1.7700231 3.7738254 4285690997
-1.5803714 -1.7709259 3.775902 4285296749
-1.5666902 -1.7718501 3.7779398 4285033834
-1.6274942 -1.7697148 3.7720001 4285494642
-1.5667118 -1.7573529 3.7779293 4285165420
-1.5223237 -1.75635 3.7760479 4284442210
-1.5101833 -1.7542485 3.77 4284573536
-1.4944854 -1.7577139 3.779124 4284244317
-1.4531149 -1.741105 3.773 4283651667
-1.447436 -1.7389613 3.7702374 4283322962
-1.4497803 -1.7272631 3.7762227 4283651413
-1.4385473 -1.7265655 3.773 4283849046
-1.4430659 -1.7197357 3.7747808 4284573029
-1.4192495 -1.7109007 3.7722933 4285230446
-1.7005287 -1.709299 3.7784059 4287533724
-1.5863616 -1.7071249 3.7787826 4285625971
-1.5688471 -1.7032516 3.7712574 4285691763
-1.5154613 -1.7061797 3.7798841 4285362798
-1.4976971 -1.7018354 3.7713609 4285099626
-1.4548168 -1.6865786 3.7704692 4284375903
-1.442335 -1.6883574 3.7748628 4284375903
-1.4291348 -1.6751467 3.7771113 4284441182
-1.443205 -1.6619798 3.7744212 4284901996
-1.4232249 -1.667523 3.7709999 4284835948
-1.4124568 -1.6577762 3.7704129 4283914839
-1.440835 -1.6419355 3.779 4284112480
-1.3988795 -1.6441127 3.771667 4283717206
-1.4334973 -1.6236441 3.7711923 4284769641
-1.4421972 -1.6029478 3.7710607 4285164652
-1.4018146 -1.6051391 3.7781527 4283848535
-1.4331785 -1.579811 3.7701614 4285032042
-1.4579154 -1.5609424 3.7737069 4284507490
-1.4169315 -1.5639307 3.7792482 4283849306
-1.4550406 -1.5250309 3.7780001 4283849308
-1.4580197 -1.5176255 3.7734373 4284638824
-1.4352031 -1.5094972 3.7751055 4285099373
-1.4742558 -1.4325434 3.776813 4284309604
-1.4322133 -1.437845 3.7784011 4284244318
-1.4482968 -1.4210842 3.7710068 4284836717
-1.4303578 -1.4218017 3.7732766 4284310111
-1.4586494 -1.4169277 3.7738085 4285428085
-1.4531149 -1.4066966 3.773 4284704103
-1.4323926 -1.4097086 3.778085 4284244318
-1.4535 -1.392526 3.7739999 4284638310
-1.4306265 -1.3796549 3.7728031 4284441696
-1.4814643 -1.3623555 3.7709999 4284835686
-1.4303269 -1.3652264 3.7716522 4284441697
-1.4439354 -1.3587612 3.7725346 4285296754
-1.4304165 -1.3511813 3.7714946 4284507490
-1.3788583 -1.3515143 3.7791438 4284967787
-1.3617805 -1.348965 3.7721882 4284572258
-1.3515 -1.3488959 3.7739999 4283783513
-1.4448414 -1.2950954 3.7704453 4284902248
-1.527975 -1.204738 3.7780001 4285428077
-1.5477037 -1.1728511 3.7757654 4285625967
-1.7204728 -1.1615944 3.7767663 4290296777
-1.73384 -1.1328465 3.7740493 4290230984
-1.7220527 -1.1343248 3.7794197 4290494156
-1.5987905 -1.1304461 3.773 4286086008
-1.5506492 -1.1176623 3.7715127 4285691249
-1.5228657 -1.1185176 3.7745883 4285362284
-1.7067039 -1.1050727 3.7765524 4290889171
-1.5224804 -1.1037364 3.7735786 4285428335
-1.721856 -1.0916669 3.7779539 4290560462
-1.5603312 -1.0847034 3.770143 4285625970
-1.5249639 -1.0765008 3.7795525 4285428335
-1.7206353 -1.0625521 3.7746673 4291152345
-1.7069736 -1.0627526 3.776077 4291349722
-1.5241719 -1.0614278 3.7775438 4285494128
-1.52338 -1.0463703 3.7755351 4285493871
-1.5250717 -1.0039767 3.7795 4285756787
-1.5468925 -0.99856138 3.7716882 4285888628
-1.5465174 -0.98385495 3.7705989 4286086007
-1.5259527 -0.98505104 3.773 4285822836
-1.6624179 -0.97619522 3.7704458 4290758606
-1.5490108 -0.97094721 3.7765043 4285888629
-1.527166 -0.97128326 3.776 4285757042
-1.5283793 -0.95749229 3.779 4285888372
-1.5275705 -0.94243062 3.777 4286151289
-1.527975 -0.91356266 3.7780001 4286019703
-1.6670216 -0.89393467 3.7784047 4290823628
-1.6510903 -0.8928439 3.7748656 4287073426
-1.5251437 -0.89733815 3.7709999 4286217082
-1.5504491 -0.88484967 3.7789614 4286283388
-1.5283793 -0.8846792 3.779 4286019703
-1.6634979 -0.87785512 3.770328 4290297540
-1.6535094 -0.86584449 3.7794976 4287270804
-1.6527036 -0.85124761 3.7773597 4287533976
-1.6527935 -0.83713311 3.7772012 4287205012
-1.6501957 -0.82164043 3.7711043 4287139730
-1.6789675 -0.80796432 3.7710965 4292667374
-1.6529735 -0.80890429 3.7768841 4287271059
-2.0398936 -0.77105588 3.7739413 4290691537
-1.6509131 -0.77958465 3.7716191 4287008657
-1.9090917 -0.71220851 3.7701855 4292008168
-1.956479 -0.60086489 3.775548 4290757582
-1.9122643 -0.59571832 3.7720203 4289046953
-1.9544513 -0.58605289 3.7714427 4291152340
-1.9409077 -0.57198131 3.7726915 4293915902
-1.956761 -0.47335431 3.7731309 4288652968
-1.9410126 -0.47285756 3.7705932 4287863703
-1.9422446 -0.44483486 3.7722483 4287601045
-1.9460154 -0.431546 3.7789927 4287601046
-1.943657 -0.38847539 3.7735848 4287141264
-1.9423497 -0.34571886 3.7701502 4287141264
-1.9478805 -0.30417129 3.7795315 4287141264
-1.9302037 -0.27515665 3.7727344 4287009164
-1.8863273 -0.24634907 3.7707222 4283916120
-1.9031537 -0.23264425 3.7750719 4282666054
-1.9707838 -1.8356109 3.7880001 4283389272
-1.9102625 -1.8336724 3.7839999 4283652701
-1.9995067 -1.8205327 3.7869999 4285362808
-1.9420453 -1.8214942 3.789 4284376166
-1.7236849 -1.7987858 3.7866075 4288389286
-1.6920058 -1.7908728 3.786 4287797149
-1.720332 -1.7899268 3.7839999 4288060325
-1.6524431 -1.7855345 3.7899477 4285691510
-1.6760589 -1.7748758 3.783 4286086784
-1.6260906 -1.7733555 3.7807808 4285690996
-1.6071934 -1.769056 3.7861137 4285625457
-1.590997 -1.7671492 3.782198 4285428078
-1.5563283 -1.762022 3.7879605 4285033834
-1.5027684 -1.7626244 3.7880001 4284573536
-1.4719614 -1.7607629 3.7839999 4284046425
-1.4743046 -1.7370058 3.7807028 4283717974
-1.4609728 -1.7383504 3.7837903 4283520342
-1.458892 -1.7334297 3.7880001 4283651667
-1.7197608 -1.7145922 3.788897 4286875795
-1.6595517 -1.7104325 3.7826409 4288257700
-1.6339653 -1.7130778 3.7894356 4286613129
-1.5300605 -1.6926708 3.7803006 4285231212
-1.4881713 -1.6928555 3.7825513 4284770661
-1.4768707 -1.696039 3.7899265 4284507489
-1.4427413 -1.6586897 3.7839999 4284112480
-1.4380755 -1.6433725 3.7831941 4284572776
-1.4412162 -1.6278034 3.78 4284046686
-1.418497 -1.6224327 3.7848501 4283914839
-1.4373522 -1.6134789 3.7811747 4284967275
-1.4189715 -1.6087942 3.7856858 4283914839
-1.4369904 -1.5985435 3.7801647 4284967020
-1.4186765 -1.5942655 3.7845337 4283914839
-1.4625149 -1.5803931 3.7858009 4284440927
-1.4187663 -1.5801818 3.7843754 4283980378
-1.4181761 -1.5511553 3.7820716 4283783513
-1.4606535 -1.5493729 3.7806189 4284573029
-1.459277 -1.5148699 3.789 4283914587
-1.4607929 -1.4915091 3.7802589 4284967020
-1.4520614 -1.4974314 3.7810516 4284441443
-1.4544064 -1.4852973 3.7870364 4284507236
-1.437163 -1.4825051 3.7800808 4285033580
-1.4517174 -1.468022 3.7800312 4284638822
-1.4332008 -1.4672011 3.7816973 4284244318
-1.4565811 -1.4537746 3.7820001 4284309857
-1.4340684 -1.4539268 3.7835257 4284178525
-1.4533095 -1.4405494 3.7840071 4284836200
-1.4533527 -1.4115089 3.7839861 4284836717
-1.4786172 -1.4077201 3.7876334 4284178787
-1.4630382 -1.3631147 3.7844489 4285691512
-1.392307 -1.3647362 3.7898786 4285098347
-1.4370023 -1.3007665 3.7867498 4284375650
-1.5525491 -1.2055776 3.78794 4285494638
-1.5276377 -1.1947703 3.7866302 4285362798
-1.5497168 -1.1888776 3.780853 4285494638
-1.7100466 -1.164078 3.7851083 4290297034
-1.6809077 -1.1491138 3.7838104 4290692045
-1.7106897 -1.1361175 3.7857809 4290691792
-1.7226094 -1.1205174 3.780251 4290691535
-1.7107798 -1.1219761 3.7856221 4290691792
-1.711423 -1.0939964 3.7862945 4290954964
-1.6951405 -1.0641342 3.7814472 4291153111
-1.7551441 -1.0524287 3.7865338 4291020502
-1.7116935 -1.0515605 3.7858179 4291218136
-1.7278183 -1.0386609 3.7891967 4291415517
-1.7103945 -1.0365524 3.7826893 4291481308
-1.525842 -1.0335391 3.7815192 4285822323
-1.7114108 -1.0229863 3.7845104 4291744480
-1.6967881 -1.0226076 3.783941 4291350490
-1.6849054 -1.0239311 3.7893124 4291679710
-1.5270838 -1.0198442 3.7845061 4285624945
-1.6827188 -1.0083749 3.7842033 4291877089
-1.653147 -0.99321967 3.7819154 4286350729
-1.5291607 -0.99212009 3.7894804 4285690738
-1.653237 -0.97909373 3.7817569 4286284937
-1.6537749 -0.96523595 3.7825885 4286350729
-1.5510943 -0.95774126 3.7814102 4286151544
-1.553178 -0.94449675 3.7863157 4286283130
-1.6548504 -0.93749732 3.784251 4287073683
-1.6558361 -0.92387319 3.7860723 4287204755
-1.5515738 -0.9290151 3.7822289 4286480252
-1.5532478 -0.91548777 3.7861352 4286348667
-1.6545829 -0.90896946 3.7829435 4287073682
-1.5512339 -0.89980036 3.7810497 4286348924
-1.654763 -0.88070208 3.7826259 4287205011
-1.6421196 -0.8530519 3.7856989 4287007629
-2.0462492 -0.81622195 3.7862568 4290165191
-1.6725317 -0.8117097 3.7883382 4288982450
-1.6437224 -0.8112936 3.7881916 4287073935
-1.6557513 -0.79612184 3.7826629 4286942865
-1.9592034 -0.67275697 3.7822635 4289177782
-1.9582353 -0.6582129 3.7801311 4289375160
-1.9600039 -0.63040507 3.7827728 4290033859
-1.9478307 -0.55988121 3.7853582 4294376959
-1.9637231 -0.54624462 3.7877357 4291481557
-1.9357947 -0.54620695 3.7895679 4287995297
-1.9322326 -0.53095502 3.7825022 4287929244
-1.9507304 -0.51803398 3.7898121 4287797656
-1.9639946 -0.50363541 3.787257 4288587175
-1.9482828 -0.48892373 3.7845612 4287798167
-1.9351131 -0.48910385 3.7869565 4287140490
-1.9362475 -0.4751724 3.78877 4286745476
-1.9463606 -0.46002051 3.780297 4287600531
-1.9495324 -0.37549868 3.784272 4287404436
-1.9503297 -0.33300799 3.7847793 4287141264
-1.9348133 -0.29006365 3.7817659 4286811785
-1.9244133 -0.26212543 3.7887709 4283850328
-1.9530678 -0.23388718 3.7876053 4287404182
-1.9367419 -0.23351821 3.7840858 4286548870
-2.0500517 -1.8202918 3.7978055 4285428858
-1.9294508 -1.8088006 3.793 4284112995
-1.7488844 -1.7801507 3.7944546 4287468185
-1.6991638 -1.7889433 3.7966921 4286481289
-1.668292 -1.7869852 3.7928629 4285560441
-1.6089604 -1.7814441 3.7969999 4285559664
-2.0021467 -1.7790983 3.7920001 4285362808
-1.6942403 -1.7786291 3.7909999 4287731356
-1.674596 -1.7786231 3.7916536 4285823612
-1.6259919 -1.7737699 3.796032 4285756789
-1.5490946 -1.7654161 3.7939999 4285034087
-1.538716 -1.7590326 3.7964582 4284705380
-1.4926977 -1.7561424 3.7907128 4284178524
-1.7360799 -1.7453485 3.7937527 4286547083
-1.4777963 -1.7384634 3.799 4284046424
-1.4644824 -1.7279824 3.7927055 4283586388
-1.6800305 -1.7171426 3.7961121 4287994529
-1.6503414 -1.715535 3.7939775 4288323749
-1.6202599 -1.7134554 3.7908487 4285560696
-1.6069818 -1.7143053 3.7932549 4285626229
-1.4507455 -1.7143432 3.7947023 4284704615
-1.5079827 -1.699507 3.7960413 4285099626
-1.446697 -1.6960747 3.7949126 4284638823
-1.451058 -1.6845292 3.7965717 4284375904
-1.451148 -1.6703993 3.7964129 4284572768
-1.4473166 -1.678578 3.796 4283783515
-1.4233195 -1.6565363 3.7980895 4283783253
-1.4650782 -1.6413654 3.7931643 4283980893
-1.4650867 -1.6251738 3.7985382 4283849305
-1.4384326 -1.6292619 3.7993391 4284375390
-1.4663066 -1.6136171 3.795985 4284440929
-1.4659554 -1.5986717 3.794894 4284375136
-1.4578266 -1.532559 3.7960613 4284375650
-1.4791179 -1.5244988 3.7903554 4283849306
-1.4811033 -1.5119864 3.7952664 4284177759
-1.4586228 -1.5187998 3.7980492 4284507236
-1.4391536 -1.5161306 3.7980685 4284178525
-1.461973 -1.5030404 3.796 4284111966
-1.4380769 -1.5007463 3.794929 4284046939
-1.4827337 -1.4845015 3.7990861 4284309090
-1.4604324 -1.4868439 3.7920001 4284177759
-1.4373891 -1.4857955 3.7927833 4284310111
-1.4596622 -1.4714547 3.79 4284244064
-1.480428 -1.4676412 3.7929947 4284243551
-1.4804629 -1.4531252 3.7929046 4284112225
-1.4556115 -1.4573982 3.7900131 4284638822
-1.4805329 -1.4240932 3.7927239 4284112994
-1.4556425 -1.4019051 3.7951725 4285033836
-1.4802127 -1.3946935 3.7915432 4284244580
-1.4908929 -1.3856503 3.7950001 4284770150
-1.486069 -1.3712766 3.7928691 4284310627
-1.4826236 -1.3678282 3.7973626 4284507236
-1.4539151 -1.3602943 3.7949071 4284770661
-1.4680953 -1.3532573 3.7973583 4285559924
-1.4484605 -1.3578314 3.799 4285559412
-1.4532193 -1.3454129 3.7927625 4284704868
-1.4537022 -1.3316511 3.7935967 4284902248
-1.4704196 -1.3056411 3.7988143 4285165420
-1.5313411 -1.1685064 3.7956014 4285428077
-1.5348504 -1.1516619 3.7950001 4285362284
-1.6983624 -1.1372807 3.790163 4290626253
-1.6594054 -1.1395115 3.7993524 4286876303
-1.6860945 -1.1242715 3.7943871 4291021010
-1.7026743 -1.1117289 3.7987571 4290758610
-1.7142909 -1.0816462 3.7920756 4291086550
-1.701937 -1.0827476 3.796458 4291087318
-1.7319298 -1.0554451 3.7982643 4291218139
-1.6861811 -1.0389507 3.7924418 4291613917
-1.6726228 -1.0107986 3.7935355 4291021778
-1.643881 -0.99616009 3.7932298 4286810764
-1.6457466 -0.98307997 3.7970316 4286744971
-1.5308093 -0.97862065 3.7934666 4285756787
-1.530831 -0.96406192 3.7934561 4285822324
-1.6445957 -0.95391923 3.7937424 4286678923
-1.6473495 -0.94131017 3.7995243 4287073681
-1.5320945 -0.93569255 3.796432 4285953910
-1.6434447 -0.92480481 3.7904537 4286941838
-1.5325229 -0.92136788 3.7974207 4286019704
-1.6448667 -0.91140258 3.7932649 4286810764
-1.6454009 -0.8974793 3.7940955 4286876300
-1.6459354 -0.88354838 3.7949266 4286942350
-1.5566311 -0.87380534 3.7938569 4286349181
-1.3747587 -0.87449133 3.7980001 4284441697
-1.6446937 -0.86864465 3.7917974 4286942093
-1.6457623 -0.84077495 3.7934587 4286942093
-1.647185 -0.82728797 3.7962689 4287073678
-1.6451452 -0.79780281 3.7910018 4287205518
-1.6335967 -0.79903936 3.7973626 4287139467
-1.3978157 -0.75772488 3.7970784 4284441443
-1.9505492 -0.5464555 3.7901313 4290297796
-1.9375412 -0.51822942 3.7922084 4287666067
-1.940763 -0.50486046 3.7979679 4287534480
-1.9374722 -0.4470109 3.7904234 4286877321
-1.9386069 -0.43304092 3.7922363 4286877319
-1.9414891 -0.39092776 3.7966881 4286615176
-1.9410577 -0.37657923 3.7955418 4287207056
-1.9386287 -0.34760782 3.790292 4286351490
-1.9392414 -0.33348468 3.7911181 4286351234
-1.9414206 -0.31962833 3.7949021 4286877834
-1.9415113 -0.3053906 3.7947421 4287009164
-1.9125069 -0.21964398 3.7926588 4281481782
-2.0237017 -1.829186 3.8050001 4285231222
-1.745093 -1.8059559 3.8015256 4288257701
-1.7256174 -1.8008687 3.8075323 4288060321
-1.7105454 -1.7857611 3.8065617 4288323493
-2.0320435 -1.7711627 3.8046846 4285428600
-1.580888 -1.768208 3.8 4285362541
-1.5569509 -1.7632437 3.8053765 4284902503
-1.5376815 -1.7691387 3.802 4284836707
-1.5123959 -1.7622088 3.8036342 4284375904
-1.5186976 -1.7543993 3.8030565 4284245085
-1.4948214 -1.7558719 3.8050001 4284375643
-1.488665 -1.7534254 3.801137 4284375903
-1.4756368 -1.7406631 3.8051629 4283783767
-1.4621906 -1.7274126 3.8081896 4283388241
-1.4483854 -1.7260592 3.8046148 4283980634
-1.4464216 -1.7114172 3.8052206 4284375652
-1.5258436 -1.7038175 3.8045614 4285231212
-1.4554025 -1.6906463 3.8065281 4284836201
-1.4684484 -1.6889036 3.8024399 4283717720
-1.4708352 -1.6624312 3.8082614 4283980892
-1.4457202 -1.6667297 3.8031902 4284507238
-1.4249486 -1.6442138 3.8019068 4283914839
-1.4408548 -1.6177911 3.8051434 4284243803
-1.4654392 -1.6092438 3.8050001 4283717974
-1.4635246 -1.594815 3.8055482 4283914843
-1.4621854 -1.5787241 3.8020439 4283849563
-1.4419935 -1.5619923 3.8064942 4284178011
-1.4637508 -1.5511189 3.8060322 4283980894
-1.4849341 -1.5450947 3.8054495 4283980892
-1.4405284 -1.5461167 3.8023605 4284178011
-1.4410075 -1.5323818 3.803195 4284046938
-1.4854293 -1.5018024 3.8061776 4284111966
-1.4812974 -1.4637688 3.8080001 4284178525
-1.4797412 -1.4475722 3.8039999 4284244064
-1.4561244 -1.447912 3.8028126 4284704868
-1.4812974 -1.4344201 3.8080001 4284244064
-1.4590553 -1.4223212 3.8094461 4284639076
-1.4812974 -1.4197457 3.8080001 4284440929
-1.4801303 -1.4039644 3.8050001 4284440931
-1.4560926 -1.3908702 3.801183 4284704868
-1.4585407 -1.3789874 3.8069818 4284507489
-1.4924109 -1.3625 3.8088458 4284375650
-1.4754192 -1.3603113 3.8028901 4284112994
-1.4621546 -1.3592374 3.801465 4285230704
-1.4457927 -1.3599067 3.8019695 4285362547
-1.4711233 -1.3205264 3.8009589 4284968040
-1.5487442 -1.2144859 3.8025875 4285231212
-1.5341661 -1.1852772 3.8026059 4285362541
-1.6903744 -1.1700108 3.8047695 4290560459
-1.7032303 -1.1691394 3.8013754 4290428874
-1.6775858 -1.1566596 3.8080049 4290297284
-1.6776764 -1.1424373 3.8078451 4290165955
-1.5362645 -1.1430138 3.80757 4285493871
-1.7039608 -1.1268526 3.8018873 4290889425
-1.6930125 -1.1147019 3.809083 4291021010
-1.7041419 -1.0984465 3.8015683 4290889939
-1.6761431 -1.0985585 3.8034041 4290889677
-1.6904625 -1.084447 3.8028216 4291087573
-1.6763241 -1.0701448 3.8030851 4291021778
-1.679214 -1.0434562 3.8087072 4291021778
-1.662905 -1.0135015 3.8038599 4286481546
-1.6500036 -1.0142454 3.8072541 4286679178
-1.6485001 -0.97050548 3.8028138 4286744972
-1.6356819 -0.9569962 3.8060482 4286679177
-1.3783784 -0.90614259 3.8080001 4284639590
-1.5341935 -0.89317089 3.8013959 4286019192
-1.3758446 -0.88982952 3.8010001 4284245087
-1.6375459 -0.87240911 3.8080602 4286810503
-1.6380768 -0.85841638 3.8088901 4287073162
-1.6368469 -0.84348196 3.8057604 4286810503
-1.3762066 -0.83145857 3.802 4284111964
-1.6382582 -0.8299486 3.8085704 4287007881
-1.6348269 -0.81390828 3.8004916 4287008138
-1.3991451 -0.81676584 3.8014369 4284506722
-1.3787403 -0.81831115 3.809 4284309343
-1.3753507 -0.80646718 3.8067617 4284441444
-2.0569224 -0.79198951 3.8046808 4290428363
-1.3995826 -0.78784692 3.8022549 4284638822
-1.3758446 -0.78729773 3.8010001 4284506722
-1.3746873 -0.76223445 3.8047318 4284639076
-1.9576153 -0.6771701 3.8063719 4293125875
-1.9433247 -0.67707425 3.8067968 4292863476
-1.9581807 -0.50580573 3.803462 4288192411
-1.959778 -0.4204545 3.8044732 4287469460
-1.9327712 -0.33481893 3.8063333 4282271552
-1.9324348 -0.30617103 3.8050263 4281284657
-1.9196799 -0.30633789 3.8084097 4280955435
-1.9330443 -0.29197857 3.8058522 4280560934
-1.9194386 -0.26339844 3.8069425 4284245085
-2.0148122 -1.8278593 3.8140621 4284835950
-1.9578363 -1.8291551 3.8174083 4284375913
-1.7223366 -1.7833413 3.8155205 4288126114
-1.698602 -1.7885772 3.8125961 4286547336
-1.6614263 -1.7856081 3.8134327 4285757303
-1.6304623 -1.7889508 3.813 4285559920
-1.5881736 -1.7802125 3.8102968 4285296492
-1.6308899 -1.7747225 3.8139999 4285691249
-1.6127914 -1.7761596 3.8178186 4285691250
-1.5960025 -1.7737923 3.8128622 4285231213
-1.57075 -1.7733266 3.8110001 4285231468
-1.5748422 -1.7669909 3.8132939 4285099626
-1.5055149 -1.7563136 3.8148634 4284244317
-1.8044938 -1.7430176 3.8157008 4284770671
-1.6867517 -1.7384411 3.8111544 4287797150
-1.4849501 -1.7359446 3.8183877 4283915096
-1.4730114 -1.7234251 3.8146274 4283783767
-1.5747638 -1.7111299 3.8181918 4285691763
-1.560096 -1.7105658 3.8176222 4285362798
-1.4553233 -1.7172822 3.8169999 4284046171
-1.4557047 -1.7030193 3.8180001 4283783513
-1.4731355 -1.6939126 3.8160276 4284376157
-1.4499149 -1.6862282 3.814193 4284507238
-1.4731169 -1.6796458 3.8143549 4283980636
-1.4424366 -1.6767517 3.8107498 4284441182
-1.4433043 -1.6634814 3.8125784 4284309596
-1.4685203 -1.6567081 3.813 4283652186
-1.4457265 -1.6520066 3.8183823 4284243803
-1.4456096 -1.6089215 3.8169096 4284178781
-1.4902893 -1.5946287 3.8197255 4283914839
-1.4464777 -1.5955857 3.8187377 4283915353
-1.4700608 -1.5701916 3.8169999 4283586136
-1.4632041 -1.5675031 3.8100717 4284243552
-1.4847982 -1.4966464 3.8169999 4284243550
-1.4610503 -1.4815267 3.8160431 4284507489
-1.4824643 -1.4796079 3.8110001 4284178272
-1.4599624 -1.466104 3.8129041 4284639075
-1.4792002 -1.4517144 3.8129454 4284244064
-1.4628936 -1.4404631 3.8195372 4284573283
-1.4815687 -1.4393649 3.8189304 4284244064
-1.5030273 -1.4024479 3.8124568 4284244834
-1.4796566 -1.4081913 3.8139131 4284178787
-1.4788961 -1.3928177 3.811904 4284178787
-1.5173211 -1.3729377 3.8111889 4284836454
-1.5027035 -1.3729019 3.8112752 4284507236
-1.3960077 -1.3639075 3.816 4284770408
-1.3849893 -1.3623908 3.8179386 4284572516
-1.489809 -1.3104216 3.811296 4285231212
-1.3665406 -1.2168555 3.816 4283652181
-1.665131 -1.1578374 3.8123908 4287336598
-1.6513149 -1.1580601 3.8138056 4286481288
-1.6951067 -1.1447346 3.8143544 4290692045
-1.6518492 -1.1441331 3.8146365 4286481543
-1.6688921 -1.131847 3.8199959 4287139475
-1.6541578 -1.1314406 3.8194299 4286547336
-1.6800237 -1.1297683 3.8126378 4290692299
-1.681017 -1.1161402 3.8144586 4290560712
-1.6662983 -1.1157378 3.8138924 4286744718
-1.6953793 -1.1019868 3.8138742 4290824401
-1.6830041 -1.0888381 3.8180997 4290824654
-1.6660323 -1.0869479 3.8125818 4286942096
-1.6663046 -1.0442231 3.8121021 4286744718
-1.6811105 -1.0303609 3.8125081 4290758606
-1.6389294 -1.0018588 3.8144507 4286613381
